# .PCD v0.7 - Point Cloud Data file format
VERSION 0.7
FIELDS x y z
SIZE 4 4 4
TYPE F F F
COUNT 1 1 1
WIDTH 1379
HEIGHT 1
VIEWPOINT 0 0 0 1 0 0 0
POINTS 1379
DATA ascii
0.54756558 0.013519237 0.20940162
0.56649655 -0.016841616 0.24427333
0.52827758 -0.012506044 0.24649835
0.54618192 -0.030846642 0.24698082
0.55298519 -0.077830888 0.1975159
0.56683016 -0.073693335 0.20046274
0.5445196 0.0074970531 0.25351372
0.56058347 -0.010866479 0.25515398
0.51978111 -0.035933554 0.24899039
0.54097271 -0.00049681269 0.2541469
0.55743378 0.0067899912 0.24657792
0.56535429 -0.05992163 0.24741642
0.55056942 -0.078839004 0.22910437
0.56252182 0.0077494252 0.25403106
0.55737215 -0.07588882 0.24301897
0.54028761 0.0121318 0.25058097
0.5284602 -0.075731158 0.20437972
0.54318994 -0.07531625 0.23887308
0.55609632 -0.076616429 0.21906239
0.56244731 -0.032541428 0.24578443
0.55777097 -0.050725017 0.25032637
0.53263789 0.021192884 0.22651477
0.55118579 -0.033178199 0.24774475
0.54232633 -0.079400413 0.21304658
0.53818017 -0.034652043 0.25764412
0.51843441 -0.062971294 0.20743255
0.53476536 -0.042726059 0.24548371
0.53561276 -0.037625313 0.24608532
0.53533405 -0.049357172 0.25633907
0.56766409 -0.024963001 0.21009932
0.54088551 0.0076260027 0.24701361
0.52591151 -0.061971832 0.24864382
0.57223475 -0.029958155 0.2538839
0.55294383 -0.078638196 0.19983546
0.53838676 -0.053044278 0.24661563
0.55280149 -0.0076781884 0.25463676
0.57154602 -0.046136789 0.25664845
0.57311988 -0.015287731 0.25082782
0.56217635 0.0082425475 0.23063245
0.53253025 -0.07583344 0.22680226
0.55032706 -0.057975914 0.25661585
0.55104625 -0.065551497 0.2476858
0.54668051 -0.078791939 0.20412493
0.57060015 -0.020048976 0.25391158
0.53628021 -0.037756573 0.2459331
0.51986068 -0.066313751 0.22569463
0.51730418 -0.040043749 0.24440643
0.53973705 0.013733174 0.22261019
0.55747932 -0.076803327 0.23542675
0.52084309 -0.049554382 0.24904996
0.52548438 -0.0010993483 0.24669398
0.53753048 -0.046669599 0.24579316
0.53632921 -0.0090482514 0.24789205
0.52307951 -0.07295265 0.19515374
0.55786753 0.011926529 0.24618496
0.52848309 -0.019581508 0.25972411
0.55722064 -0.05852291 0.25056857
0.54997414 -0.078012288 0.22183321
0.53303605 -0.039526302 0.2488102
0.56086743 -0.0018032468 0.24620567
0.53324461 -0.026765214 0.24601987
0.55828029 -0.078666732 0.20219864
0.55548584 -0.078383379 0.21025079
0.53917891 0.010968613 0.25184155
0.5696429 -0.026740298 0.20057386
0.56476796 -0.049750086 0.24789743
0.53160399 -0.071740806 0.24707466
0.55662555 -0.051201731 0.25577584
0.53692871 -0.043573707 0.24813877
0.54302543 -0.066572174 0.24859391
0.56525797 9.8623286e-06 0.25460538
0.54181051 -0.079597816 0.19552578
0.56801087 -0.075277679 0.19649577
0.55605686 -0.00097175827 0.25503346
0.55580533 0.013336945 0.2449511
0.51879656 -0.036373254 0.24833095
0.57149673 -0.045706872 0.24612008
0.52224362 -0.0080736848 0.24868764
0.53522539 -0.049409728 0.24625936
0.5232476 -0.025391925 0.24594419
0.55555993 -0.056608062 0.25096163
0.56716019 0.012724464 0.20746623
0.53976709 -0.063677385 0.24799071
0.55172259 -0.060523316 0.25081167
0.56407285 -0.075317606 0.20783265
0.54068458 -0.030494126 0.24781071
0.56820971 -0.057108559 0.24903445
0.55820644 -0.033213172 0.24942794
0.54467213 -0.033195242 0.24729435
0.56723642 -0.073378503 0.21767399
0.55398118 -0.077890761 0.22601713
0.54979914 -0.042912494 0.24625546
0.54240274 -0.015354087 0.24647023
0.56615859 -0.016775155 0.2443504
0.56582034 0.011768355 0.21124563
0.55454463 -0.047914892 0.25682583
0.5252592 -0.054449704 0.24819592
0.53782636 0.0081101032 0.24800508
0.55879587 -0.051328573 0.24721064
0.54523146 -0.0032558723 0.25444674
0.51526523 -0.046196364 0.23884761
0.5343172 0.016113069 0.23591283
0.55156171 -0.07875935 0.1890609
0.56590569 -0.072827153 0.20198897
0.56273949 -0.067846797 0.24716596
0.52907652 0.0086413026 0.25100324
0.53764832 -0.077764519 0.2058337
0.53675497 -0.02721368 0.25677213
0.57024091 -0.019684609 0.21478105
0.54507989 -0.076310575 0.24696122
0.52291811 -0.01167856 0.24937113
0.52306449 -0.068618491 0.21349753
0.56442791 -0.055995964 0.25742766
0.55480647 0.012568651 0.22399309
0.56050801 -0.042295717 0.25565049
0.55891591 -0.073608972 0.24517128
0.539177 -0.077663988 0.22703385
0.56033605 -0.02495854 0.24558909
0.55897415 -0.069145545 0.24894747
0.53880274 -0.055947613 0.24659309
0.51797396 -0.057355706 0.24343348
0.56460994 0.011816925 0.25160947
0.56559533 -0.046555355 0.25669441
0.54235077 -0.034290992 0.25704637
0.53833783 -0.018739555 0.24935025
0.5275116 -0.064133048 0.24968046
0.5576539 0.00070972601 0.25252721
0.51815099 -0.056901474 0.24498723
0.5573945 0.013458068 0.23651671
0.5505572 -0.068354517 0.24891487
0.55510432 -0.078808285 0.21337877
0.54531223 -0.073549055 0.25806329
0.54375732 -0.0092035877 0.246291
0.53183967 0.0042033442 0.25308171
0.55868661 0.0034523164 0.25343454
0.5398097 -0.077436298 0.20447516
0.52527672 -0.029541966 0.2500121
0.56757247 -0.0034945698 0.25490692
0.52865279 -0.042722743 0.24752551
0.53517818 -0.046206117 0.25673383
0.56586975 -0.043386437 0.24676104
0.52708036 -0.042076956 0.24800345
0.55959314 0.012501683 0.245354
0.53083491 -0.012748938 0.25652012
0.52906471 -0.022974337 0.25042188
0.54983294 -0.064344972 0.2574766
0.55023342 0.012751075 0.21663378
0.566562 -0.073676534 0.26015842
0.54877257 -0.079378158 0.21525201
0.56408274 -0.071789928 0.24713255
0.56458473 -0.074851356 0.20362592
0.53540432 -0.068740197 0.24913612
0.56486076 -0.0053648395 0.25472081
0.51494879 -0.04345414 0.23660183
0.52497357 -0.067506 0.24790286
0.54267699 -0.07946936 0.21296661
0.54047912 0.015724875 0.24022217
0.57182229 -0.06786412 0.24035795
0.55612546 -0.078832552 0.2271542
0.56845129 -0.024915759 0.21106416
0.55418593 0.0025555345 0.25090539
0.54798079 -0.075296849 0.25955257
0.52528769 -0.052298307 0.24788144
0.55672449 -0.068982579 0.25937274
0.52525109 -0.042390302 0.248182
0.5403921 0.0026687535 0.24566954
0.55197489 -0.032369137 0.24853209
0.56335884 -0.00225408 0.24672407
0.57025701 -0.03156824 0.24274743
0.54557264 -0.02591257 0.2562665
0.52165395 -0.070745505 0.19581042
0.53914422 -0.07592795 0.23195009
0.55540347 0.014487169 0.24533752
0.57232428 -0.02879663 0.25302249
0.52938795 0.01214082 0.24452795
0.53285253 -0.052452698 0.2466289
0.55514479 -0.041615974 0.25726146
0.55670804 0.012705492 0.24762365
0.5705319 -0.029253639 0.25404766
0.53669918 -0.023318062 0.25659806
0.55477077 -0.030792203 0.24654737
0.54085344 0.013060952 0.24841098
0.55526638 0.0023518251 0.24642026
0.55584526 -0.078450337 0.18979844
0.52810031 -0.013167859 0.24629176
0.57333708 -0.029335495 0.25301039
0.5391956 -0.0029415672 0.2460153
0.54870415 -0.044903453 0.24679565
0.5696153 -0.05070338 0.24679191
0.54180682 -0.076617368 0.22913404
0.53729874 -0.0026408904 0.24534951
0.55490702 3.376821e-05 0.24977684
0.57361186 -0.0085517643 0.21497634
0.53120583 -0.027736181 0.24599841
0.57035971 -0.0040172986 0.24391767
0.54052109 -0.078893512 0.22531237
0.56030828 -0.073175743 0.24566148
0.52392393 0.0077884332 0.2473731
0.55586219 -0.026469633 0.25650811
0.55211967 0.0036158401 0.24942261
0.54532611 -0.07714878 0.22405347
0.52912247 -0.051449072 0.25020385
0.55712414 -0.023391731 0.24558042
0.5262022 0.0015805006 0.24753049
0.54983187 -0.026373999 0.24859114
0.54433948 -0.033129822 0.24737021
0.5429306 -0.078580029 0.20268236
0.57021463 -0.026087465 0.2007148
0.52458024 -0.073447257 0.19183101
0.51913738 -0.055724461 0.24851051
0.53753698 -0.0055229459 0.24794784
0.55771697 0.0039682477 0.25344616
0.56508005 0.010769776 0.25088298
0.52735084 0.0065855645 0.2480505
0.55633479 -0.059794165 0.25070164
0.52941978 -0.056929249 0.246658
0.52087522 -0.023583891 0.24788634
0.53367573 -0.034643229 0.24939866
0.57251501 -0.060403954 0.25740558
0.55219102 0.0040521189 0.2542567
0.53330994 0.018622102 0.2267935
0.56829935 -0.0039180783 0.24535182
0.5413096 -0.056917299 0.25809643
0.56729549 -0.024890518 0.21018338
0.56100374 -0.078412443 0.19971207
0.54266024 -0.076440006 0.2333528
0.56276917 -0.073982328 0.24498585
0.55375713 -0.011719986 0.24596089
0.56925058 -0.010802726 0.25301167
0.53536338 -0.011347428 0.25504228
0.52625936 -0.021972952 0.24982034
0.52145153 -0.067800015 0.20228568
0.56835312 -0.021106398 0.25425357
0.52434379 -0.071440056 0.22832569
0.53054142 0.0097414618 0.24964838
0.51826453 -0.062254269 0.23466559
0.53696746 -0.07635574 0.23857504
0.56099051 -0.020479569 0.24492803
0.56175256 0.0051926211 0.25357479
0.57087451 -0.069722973 0.22697599
0.54041749 0.014241355 0.24645345
0.52927309 -0.074074678 0.23255467
0.54213876 -0.037423715 0.24619623
0.53995258 -0.025468098 0.24756314
0.55369931 -0.064449467 0.24765646
0.55083674 -0.016414275 0.24854082
0.51760674 0.0012755403 0.24471776
0.57181698 -0.068766326 0.22609322
0.51514989 -0.022936568 0.20918895
0.53571117 -0.027474836 0.24645047
0.56783283 -0.048170123 0.2468996
0.53309339 -0.039162003 0.24593939
0.53815126 -0.077381432 0.20870562
0.51990241 -0.04815786 0.24822673
0.56496471 0.0077623087 0.24573024
0.56290561 -0.054695211 0.25021622
0.57086664 -0.0065215589 0.25319827
0.54917067 -0.078484088 0.22837895
0.53837186 -0.048022095 0.24625316
0.54321021 -0.076858066 0.22089124
0.54704726 -0.0012729302 0.24643648
0.54949701 -0.056738853 0.24676473
0.56318241 0.0078383069 0.23439097
0.55351275 -0.012743343 0.25538704
0.55062187 -0.058987875 0.25722075
0.54270822 -0.016363814 0.25574297
0.51629388 -0.05239566 0.23576324
0.54909623 -0.037581064 0.25804079
0.53081065 -0.011141818 0.25667405
0.53963548 -0.074794538 0.24728809
0.56571472 -0.064863898 0.24560703
0.54997021 -0.014486104 0.25543466
0.54825789 -0.00081219483 0.24640815
0.5684886 0.01212754 0.20608424
0.54806477 -0.050855938 0.2575852
0.55664408 -0.077937678 0.23168032
0.57280958 -0.051325556 0.2572709
0.54828006 -0.04648672 0.24630143
0.55541533 -0.0067402706 0.25423658
0.56940323 0.0050733271 0.23135288
0.5368228 -0.069580249 0.258555
0.53087795 -0.038779769 0.24955654
0.54746258 -0.076632991 0.23896043
0.52917266 0.0031120742 0.24760319
0.55639213 -0.071931653 0.26031286
0.5567205 -0.076915085 0.23846729
0.54881769 -0.077177636 0.21448861
0.57143492 -0.0069580977 0.24377747
0.57185 0.0054282211 0.21855347
0.53560251 -0.042215448 0.2455322
0.54194206 -0.0013084122 0.2543458
0.55160975 -0.056496259 0.24651623
0.54804188 -0.0175153 0.25576717
0.52671754 -0.038780004 0.2481571
0.52602965 -0.014153996 0.24626999
0.55207723 -0.025783392 0.24863887
0.54074985 -0.014414947 0.25512117
0.5462842 -0.01740949 0.24619964
0.54360217 0.012885167 0.21268855
0.55636275 0.00060590933 0.25193033
0.55611342 -0.059451427 0.25080359
0.57051659 0.0058441143 0.22521794
0.55299193 -0.01153473 0.2485362
0.56455088 -0.075219706 0.24104679
0.55128664 -0.018161777 0.25624782
0.54260218 0.013371698 0.25008279
0.56782305 -0.069914833 0.20271796
0.563079 -0.011047246 0.25559589
0.54696381 -0.0030927917 0.25365415
0.51915544 -0.064939514 0.23351516
0.52966958 -0.060318321 0.25862256
0.54626191 -0.058581315 0.25085923
0.52307349 -0.069489628 0.24235031
0.52054465 -0.018545713 0.2481584
0.54064715 -0.018070862 0.25647455
0.56725353 0.0069875577 0.22825462
0.55994797 -0.028340368 0.25624347
0.56238621 -0.053964172 0.25677943
0.56483817 -0.069686145 0.24863954
0.54186571 -0.036143899 0.24707073
0.56828809 -0.0053006425 0.24486341
0.55385488 -0.010082513 0.25464815
0.56131661 0.012050141 0.25272977
0.55677074 -0.078869238 0.20665681
0.53101623 -0.049585156 0.24686363
0.55839622 0.0028193952 0.24716321
0.56483579 -0.075752892 0.23008516
0.55090201 -0.078002393 0.23471206
0.54424071 -0.033174712 0.24729782
0.5349921 0.015145275 0.23891369
0.52445745 -0.046111483 0.248061
0.51845795 -0.054163337 0.2466668
0.53273362 -0.024033982 0.24599643
0.53357428 -0.072691664 0.25946158
0.56000739 -0.032159679 0.24523336
0.53629494 -0.033141579 0.24649434
0.52391136 -0.0063360636 0.24615909
0.53539234 -0.075383976 0.23069489
0.53603208 -0.040611822 0.24603277
0.56766993 -0.043078087 0.24658534
0.55320531 -0.058627278 0.24658073
0.5691238 -0.070549726 0.22159633
0.53209144 -0.073223703 0.24399224
0.54002744 -0.077145278 0.22708312
0.52746356 -0.069103405 0.24801499
0.53377801 -0.037703458 0.25767067
0.57018608 -0.048303869 0.24647959
0.53363866 0.0074148751 0.24627616
0.52836192 -0.070469595 0.25991622
0.56953436 0.0039483244 0.21469028
0.55389994 -0.038818121 0.24598508
0.55655873 -0.078256369 0.23158085
0.54462677 -0.063807264 0.24824792
0.54557037 0.012264208 0.25228739
0.51670676 -0.054087378 0.23742183
0.5672406 -0.068247028 0.24523863
0.5650574 -0.0042788675 0.24680996
0.56576365 -0.027794089 0.20295995
0.55638134 -0.041865285 0.24987747
0.52325428 -0.047532514 0.24997792
0.54777396 -0.076784037 0.22038977
0.53936893 -0.05006757 0.24644278
0.5420298 -0.059709214 0.24796663
0.53022516 -0.043368515 0.24704757
0.57091951 -0.046583701 0.24590059
0.5404464 -0.051788025 0.24673493
0.55351311 -0.0088934321 0.24902758
0.53757453 -0.077005871 0.22752093
0.52532423 -0.074320011 0.19531429
0.57085884 -0.013357636 0.2426724
0.53487182 -0.0404284 0.24784139
0.56190914 -0.07098648 0.26006159
0.57275838 -0.051442116 0.24495958
0.53391683 -0.033483673 0.24567682
0.55306405 0.0035624779 0.2497859
0.53394717 0.0018204782 0.24638925
0.52234882 -0.069667548 0.2284988
0.55339491 -0.036490869 0.25816214
0.53835189 -0.022682495 0.25678834
0.5410412 0.013094373 0.2496018
0.52900416 0.007971542 0.24720736
0.57139677 -0.040654562 0.255382
0.54175144 -0.032014839 0.2469178
0.52008837 0.007480023 0.24559999
0.54362893 -0.061906431 0.25816453
0.53628963 0.015497649 0.22785282
0.51449656 -0.022216303 0.20810226
0.53852421 -0.076994307 0.22952016
0.52846706 -0.050434325 0.25050578
0.56015801 -0.023961993 0.25562209
0.56222194 -0.032754071 0.25591984
0.54436821 -0.066001147 0.25075585
0.5274201 -0.0048315516 0.2472097
0.56831962 -0.019677596 0.21508776
0.54875183 -0.079595812 0.19265045
0.55033433 -0.0026383528 0.24880232
0.55945206 0.0083799586 0.2534934
0.54896814 -0.035948448 0.24671072
0.57083857 0.0071383528 0.24735403
0.51553416 -0.047160793 0.2335227
0.54832995 -0.032564711 0.25734678
0.55816346 -0.046507556 0.24687462
0.555906 -0.054894734 0.24747653
0.55075425 -0.038870435 0.24646461
0.54457361 -0.076413073 0.24593231
0.54432559 0.0050583654 0.25274876
0.52986759 0.0029754147 0.2474447
0.53427595 -0.074449435 0.23687232
0.55690831 -0.028943049 0.24579181
0.55466634 -0.078034751 0.20299138
0.56965011 -0.024627564 0.25367647
0.5424785 -0.076749459 0.22898085
0.51876366 -0.021149117 0.24594094
0.53814417 -0.071588077 0.2486611
0.54472393 -0.049971163 0.24670182
0.53418124 -0.0020277922 0.24606052
0.56431055 0.0067686941 0.22827175
0.53939158 -0.037221063 0.24670306
0.56872976 -0.075725637 0.19407766
0.56406915 0.0020815646 0.24707612
0.56457013 0.012371489 0.24528144
0.56910688 -0.018801412 0.24209242
0.54616505 0.0064701894 0.2461033
0.52066368 -0.052382261 0.24981794
0.55439228 -0.053753015 0.24704829
0.57308733 -0.016303927 0.21231079
0.57132638 0.0054828105 0.24498749
0.56359738 -0.074327976 0.24365942
0.55968988 -0.044275615 0.24635155
0.54000765 -0.041164722 0.24711911
0.56741214 -0.027592577 0.20169765
0.56266975 -0.013520566 0.25493962
0.53681546 -0.039504346 0.24795236
0.53776139 0.00045896234 0.25343311
0.52458596 -0.071910277 0.21837921
0.56653452 0.0073513766 0.22312485
0.51634383 -0.0024092111 0.24088077
0.51883525 -0.030736132 0.24787368
0.55100405 -0.052716926 0.24580663
0.55688179 -0.057966635 0.25662524
0.56143755 0.011244267 0.24645054
0.53019959 -0.0043687229 0.24798952
0.5288747 -0.043421518 0.2497592
0.52086592 -0.025492536 0.24802352
0.56685901 -0.045124914 0.24706075
0.55167884 -0.07148578 0.25926057
0.53525841 0.01604634 0.22786517
0.54269063 0.0071534878 0.24689572
0.53950846 -0.058854852 0.25889048
0.56933194 -0.012989786 0.21622595
0.5188446 -0.065982632 0.19367091
0.56645095 -0.073743813 0.21981433
0.56916499 -0.033526011 0.24437167
0.52524436 -0.073399343 0.21903236
0.55155718 -0.034101781 0.24695551
0.54290098 -0.035885513 0.24662092
0.54724091 -0.071735308 0.25859544
0.53909892 -0.052068658 0.24911965
0.54508775 -0.024773829 0.24699619
0.57148749 -0.011752578 0.25152597
0.55253887 -0.039619245 0.25814644
0.52009565 -0.02111892 0.24773574
0.56564051 -0.07325656 0.24478853
0.55934155 -0.027728101 0.24583732
0.57218224 -0.047195647 0.25715336
0.56604868 -0.022741552 0.25502902
0.54153359 -0.02805607 0.24746798
0.56200117 -0.020678328 0.24469753
0.56773329 -0.0045079081 0.2542772
0.54335153 0.012302873 0.21448866
0.55540168 -0.077097818 0.23968405
0.55098593 -0.062777057 0.24760631
0.53139871 -0.0028867866 0.24619654
0.5619173 -0.078025974 0.21257739
0.5279724 0.0077449102 0.25207224
0.55454761 -0.078690477 0.22959986
0.53067321 0.0087076146 0.24720407
0.55565572 0.012846304 0.25051031
0.56162459 -0.03443332 0.2501609
0.54485732 0.014201613 0.24217191
0.53623408 -0.033363186 0.24874492
0.56697071 0.0075083235 0.21897908
0.52775359 -0.048071619 0.2503247
0.56207246 -0.060783636 0.25130931
0.56619775 -0.046315342 0.24674337
0.531793 -0.024881154 0.24584499
0.54334265 -0.063554712 0.2485408
0.54205489 -0.071158014 0.25763419
0.56768215 -0.072865494 0.24353118
0.53170216 -0.0086940415 0.25458428
0.51542866 -0.049503133 0.23337397
0.52549136 -0.0072031529 0.25594911
0.53759766 -0.065140046 0.24964502
0.53272057 -0.060093313 0.25727093
0.5425483 0.015722023 0.23684023
0.5462451 -0.065238751 0.2582258
0.55928606 -0.039630577 0.2499091
0.54985905 -0.044463918 0.24676862
0.57385004 -0.05187916 0.25725845
0.55385399 -0.052245621 0.25631303
0.53435606 -0.027824774 0.24987824
0.56451964 -0.02806906 0.24489653
0.56059188 -0.0089226384 0.24587053
0.52472365 -0.068779789 0.24466285
0.54619527 0.013858211 0.24704543
0.53581816 -0.077259988 0.20413433
0.5435816 -0.042708345 0.2477337
0.55816865 -0.038092852 0.25614965
0.52604872 -0.071992755 0.23605861
0.56690586 -0.076539457 0.19622338
0.54782903 0.0025603406 0.24825908
0.53969306 -0.072847165 0.24737336
0.5700205 -0.05759171 0.24750368
0.533117 -0.026574757 0.25007024
0.56460762 -0.025324972 0.25485408
0.54123861 0.0077836956 0.24725011
0.53998303 -0.020201877 0.24728002
0.55079657 -0.076544203 0.24382776
0.55973685 0.0077506583 0.25382993
0.5454632 -0.055392571 0.24988817
0.56233674 -0.055828363 0.25055969
0.55930561 -0.061489537 0.25947306
0.53973836 0.00054649496 0.2474142
0.55913979 -0.070042409 0.24695745
0.53129458 -0.014045244 0.24654767
0.54918283 -0.066261269 0.25780603
0.53376752 -0.074226178 0.23800956
0.57236111 -0.050376851 0.24540019
0.55019987 -0.062080186 0.25051752
0.55298752 -0.073541045 0.24518451
0.54415113 -0.077025458 0.2114076
0.56858861 0.0098776799 0.2115097
0.5706749 0.0014496539 0.24473338
0.53468376 -0.073362418 0.24621652
0.53739917 -0.077343732 0.23279263
0.55030042 -0.070562333 0.24817272
0.51871246 0.0062511442 0.24555287
0.56552374 -0.029868329 0.24517234
0.56013364 0.016381713 0.20374452
0.56256491 -0.077494048 0.21909994
0.53914791 -0.065336406 0.24857327
0.54044473 -0.077846333 0.22569574
0.55536902 -0.0079528727 0.24596861
0.53392792 -0.032122508 0.24615768
0.52613175 -0.075141542 0.19151741
0.55508327 0.012233387 0.25245789
0.54901606 -0.055986173 0.24710776
0.56609619 -0.063142031 0.24508438
0.55915457 -0.058653962 0.25751454
0.5667063 -0.061161801 0.24676263
0.55935746 -0.078878574 0.20195296
0.56994581 -0.022222493 0.21392794
0.53479135 -0.070317343 0.24920952
0.56613326 -0.057638675 0.25793046
0.52052945 -0.0049053957 0.2473235
0.53053272 -0.075386867 0.2262229
0.55290139 -0.012241938 0.24591133
0.52988261 -0.044647347 0.24664839
0.5400216 -0.028438248 0.24757189
0.53741992 -0.017318362 0.2497731
0.55435598 -0.078015 0.23416069
0.52693778 0.011297245 0.24817222
0.52269328 -0.0067996182 0.2461876
0.53443062 -0.030571053 0.24957566
0.53873545 -0.033836417 0.24693428
0.54031086 0.01363446 0.21601669
0.53425854 0.013204576 0.24573267
0.57202297 -0.053144727 0.24554507
0.54476291 -0.044128358 0.24769452
0.52240908 -0.027148297 0.2489509
0.57236755 -0.0099684438 0.24148971
0.56482548 -0.074638471 0.22189994
0.54739487 0.013535568 0.24036688
0.56845284 0.0068597617 0.22014959
0.53013468 -0.020037716 0.25008667
0.5408172 -0.057946 0.24895035
0.54432285 -0.077498518 0.20998843
0.55404371 0.013061889 0.24841061
0.51977068 -0.054148022 0.24966778
0.55967712 -0.072828583 0.24593072
0.57251829 -0.0068404567 0.21575625
0.55693579 -0.016676268 0.24584579
0.56422585 -0.071042642 0.2457975
0.52662748 -0.014619902 0.24601012
0.52663565 -0.043173507 0.25018927
0.54917896 0.013880721 0.23684867
0.56155318 -0.057945225 0.25025618
0.53930759 0.0052821613 0.24747309
0.56103671 -0.0042207618 0.24639446
0.56794083 0.0097143482 0.21316686
0.51810193 -0.060775857 0.24154867
0.53882128 -0.045843989 0.24764088
0.53781801 0.0145156 0.22666672
0.56893569 -0.062899269 0.2457936
0.55902284 -0.035157669 0.24988888
0.57302362 0.0069852318 0.2105477
0.51839238 -0.011262522 0.24160789
0.56391013 -0.074131116 0.24451135
0.56681961 -0.026667234 0.20962878
0.55019855 0.013504264 0.25088552
0.52576506 0.0013138501 0.24750517
0.52875555 -0.077137157 0.19392514
0.55520099 -0.01148451 0.24948522
0.52622968 -0.03388023 0.24782616
0.56718105 -0.061904676 0.24642408
0.56809652 -0.054412168 0.24786289
0.54925442 -0.033083551 0.24660839
0.57167435 -0.02204057 0.25233322
0.5399335 -0.004823552 0.2550554
0.57268512 -0.040671341 0.25231493
0.5418123 -0.079356454 0.19383413
0.52425444 -0.056398388 0.24873681
0.53052258 -0.073485181 0.24074505
0.57225436 -0.068392023 0.22508392
0.54002351 -0.062793285 0.25891569
0.55759364 0.0036034719 0.25291929
0.53129572 -0.061569307 0.24686125
0.52571076 -0.014140805 0.25693578
0.57093471 0.0016969847 0.25376385
0.53648359 -0.071925379 0.25906807
0.55468321 -0.062852517 0.24699412
0.54438388 0.013330859 0.24803641
0.54288828 -0.026386289 0.24677275
0.57040536 -0.043284506 0.25635248
0.56506467 -0.04543227 0.24723588
0.51687276 -0.026720483 0.244441
0.52977419 -0.012790966 0.2569643
0.52202141 -0.054436434 0.25044224
0.51775604 -0.057018355 0.24353383
0.54397196 -0.053321116 0.24670586
0.52583331 -0.072101586 0.2383524
0.5456993 -0.023284784 0.24635459
0.55260766 -0.070693463 0.24776091
0.52495974 -0.072574958 0.22182615
0.51901537 -0.066283159 0.196017
0.53468627 -0.031930815 0.24610557
0.55163026 -0.068752736 0.25862288
0.55017388 0.01235436 0.24648212
0.53858697 0.0029633387 0.24708134
0.56783795 -0.036427908 0.24569839
0.56692028 -0.035675634 0.24503766
0.54050457 -0.066435911 0.25012207
0.56141514 -0.016243586 0.25060052
0.54964632 0.00031238905 0.24658704
0.54041606 -0.026011772 0.25706303
0.55259717 -0.07198187 0.24730575
0.54907268 -0.0023137785 0.24681947
0.51687396 -0.045180719 0.24253872
0.52469838 -0.061404206 0.24903716
0.56472534 -0.048082922 0.24983114
0.53866935 -0.07341823 0.2592766
0.51955885 -0.0654139 0.24197274
0.56142211 -0.042954978 0.24654552
0.5549162 -0.077703662 0.23018062
0.5426141 0.011180167 0.25292531
0.54104453 -0.0060784859 0.25422642
0.54329669 -0.070475414 0.24931249
0.55233675 -0.079726472 0.21456417
0.53557068 0.016143274 0.23668973
0.57292128 -0.014026896 0.21314442
0.5484013 0.0051404312 0.25367448
0.56910163 -0.019068846 0.24307115
0.53887445 -0.044250097 0.24643822
0.55352247 -0.038115792 0.24836569
0.53945857 -0.048745256 0.24870761
0.54617006 -0.066692725 0.24912599
0.55910939 -0.034577373 0.24559109
0.54607934 -0.046551552 0.24781927
0.55654746 -0.061453417 0.25107262
0.56795031 -0.069357663 0.24473247
0.56795788 -0.014042187 0.24503452
0.56451756 -0.078598768 0.19265315
0.53214544 -0.022224944 0.25759876
0.53464192 -0.013662806 0.25568351
0.54629308 -0.075887173 0.23372962
0.51833057 -0.061588731 0.21061799
0.52052349 -0.054674231 0.24968328
0.57194042 -0.057969291 0.24706581
0.57402611 -0.041899376 0.25266495
0.55109507 -0.033830769 0.25716767
0.51821029 -0.06071531 0.21106282
0.55744106 -0.038220234 0.25652444
0.53891599 -0.077386394 0.23361009
0.57019538 0.00075257343 0.25472453
0.5201894 -0.048542324 0.24935107
0.5507707 -0.077300824 0.2286814
0.52508777 -0.071752079 0.202784
0.51813787 -0.06264741 0.22949956
0.56196803 -0.062503271 0.24703725
0.54783767 0.014494853 0.23693554
0.53049272 -0.046962913 0.24680351
0.56130987 -0.028963948 0.25615525
0.55425817 -0.073276363 0.24658377
0.54706234 0.0098199919 0.24714895
0.54621941 -0.076663233 0.25992471
0.51930845 -0.014778996 0.24733259
0.5600782 -0.0043393457 0.25457105
0.56764495 -0.00070526602 0.24552184
0.53587091 -0.076652445 0.22528504
0.55731004 0.016219188 0.21397838
0.54900587 0.0065211034 0.25374395
0.55780315 0.013040746 0.21991101
0.55888373 -0.055131815 0.25073805
0.56691378 -0.055356942 0.24878795
0.5613507 -0.052265525 0.24972254
0.56782615 0.0060877446 0.23253497
0.53323573 -0.024123028 0.2572355
0.54993743 -0.073996268 0.24487813
0.5450542 -0.028068924 0.24690597
0.55455279 -0.043720338 0.24628906
0.54532409 -0.032188639 0.24708544
0.55071425 -0.07640852 0.24281615
0.5682866 -0.070873402 0.24521454
0.56526893 0.0074786255 0.25443882
0.51985413 -0.0077674869 0.24786542
0.56180561 -0.071685091 0.2470257
0.56764221 -0.011236271 0.24607936
0.56110775 -0.017479094 0.25579032
0.5347181 -0.010601008 0.25476325
0.53353387 0.0050158966 0.24651495
0.56675601 0.013704747 0.24540806
0.55718362 -0.012471823 0.24975193
0.51668799 -0.036861453 0.24106255
0.56791312 -0.024504561 0.25426731
0.56167758 -0.02818751 0.24530454
0.57329863 -0.032582827 0.25275999
0.53104597 -0.01026378 0.24685502
0.53146863 -0.064847656 0.24781698
0.55908036 -0.068658799 0.24926758
0.5524376 0.013575427 0.24609667
0.534545 -0.078352563 0.19564897
0.569857 -0.055410046 0.24723035
0.53692639 -0.076995112 0.23406386
0.53098488 -0.073715791 0.23836182
0.51514137 -0.021487242 0.21000671
0.53587145 -0.069387108 0.2487286
0.52258384 -0.007921746 0.24891552
0.56568456 -0.030575207 0.24489623
0.55588788 0.016560566 0.21429089
0.56437248 0.0061958707 0.22994307
0.52323192 -0.017345548 0.24995837
0.55933702 -0.078036971 0.23014599
0.54166383 0.015601437 0.23598352
0.5375725 -0.078909606 0.19251838
0.56358695 -0.0070957956 0.24604401
0.53880119 -0.038117819 0.24647859
0.55439889 -0.04548686 0.24944429
0.52597505 -0.042150684 0.25049362
0.57095522 -0.011234544 0.2155185
0.57097358 -0.066382051 0.2431633
0.55409074 -0.074724182 0.2450242
0.52998912 -0.055949587 0.25045985
0.54430532 -0.076526552 0.22764851
0.52110934 -0.069409817 0.23668663
0.56549364 -0.0023277076 0.24635996
0.5721131 0.0062678657 0.24747561
0.53875917 -0.033973586 0.2482287
0.55533576 -0.079329535 0.22173926
0.53194076 0.001157186 0.24647176
0.55228573 -0.067266837 0.24967013
0.5532465 -0.0214753 0.24912225
0.56274515 -0.061202917 0.25921375
0.5481301 -0.075426504 0.24786448
0.56409097 0.0094263274 0.22131494
0.54584646 0.0026859338 0.25384277
0.54021335 -0.042166524 0.25704491
0.53564787 0.0074297339 0.24703607
0.56739134 -0.021738375 0.24346821
0.55619287 0.014686706 0.24528328
0.55684894 0.012754672 0.24882159
0.51626116 -0.055773929 0.22772211
0.51997024 -0.0092190029 0.24831389
0.54900104 -0.0047267592 0.24828589
0.53609681 -0.0086884694 0.24799909
0.56491792 -0.026504949 0.20891467
0.53931975 -0.052410498 0.24901795
0.56665993 -0.017559709 0.24399285
0.53000891 -0.016240243 0.25803882
0.51903814 -0.065360844 0.22833706
0.52404767 -0.014809224 0.2463515
0.5648514 -0.049438521 0.24799469
0.53447556 0.01128966 0.24764118
0.57286561 -0.018519675 0.21370576
0.56806469 -0.0045874622 0.25420436
0.54469621 -0.033879921 0.24708802
0.55213308 -0.078553252 0.23003083
0.55804735 0.0038889451 0.25337356
0.51668328 -0.0062192194 0.22541441
0.56551617 0.011496814 0.24589428
0.54678267 -0.03490508 0.25704038
0.53818935 -0.055176429 0.24942473
0.51714277 -0.05994809 0.22939193
0.54428089 0.012100182 0.21298201
0.51654607 -0.052951004 0.24044406
0.53685963 0.016543107 0.24794388
0.57068425 -0.062415194 0.2446156
0.57179683 -0.023967043 0.25236812
0.55062079 -0.077956289 0.22580226
0.5613938 0.010086636 0.22318639
0.55364823 -0.080186285 0.19273858
0.54549092 -0.075574651 0.24090815
0.51487982 -0.048149116 0.2277995
0.53520417 -0.033266831 0.24662264
0.53961784 -0.077351958 0.20688824
0.56184471 -0.014135662 0.25075144
0.51940894 -0.027146032 0.24770197
0.51913452 -0.065279916 0.2210874
0.55222642 -0.060796387 0.2565929
0.52985615 0.0015671642 0.24694721
0.54993731 -0.05819609 0.25692475
0.54085356 0.01265157 0.25127804
0.53921801 -0.074832857 0.24115969
0.54341435 -0.051555499 0.24742018
0.53014857 0.0098232571 0.19307488
0.53377068 -0.077047594 0.23454492
0.55534846 -0.029910311 0.25658092
0.53612161 0.0017454789 0.24601838
0.56503105 0.0076949317 0.22217968
0.55423045 -0.038883131 0.24590969
0.54499286 -0.046705559 0.2584078
0.56557769 -0.015955366 0.25553632
0.56920344 -0.0075101061 0.24500781
0.56483561 -0.074433781 0.24235313
0.52914155 -0.070333116 0.25951466
0.52171481 0.0077382196 0.24642408
0.55419904 -0.025180446 0.25624037
0.55477017 -9.2954593e-05 0.25491071
0.54517734 0.0028465532 0.25398982
0.54811645 -0.056796391 0.24696293
0.52078426 0.0077908053 0.24606609
0.56968468 0.0099211074 0.21105073
0.54463828 -0.060401771 0.25798771
0.52578676 -0.067009985 0.24794997
0.52693111 -0.047268912 0.24725895
0.55258864 -0.037218329 0.24675992
0.56373221 0.0080240639 0.22374065
0.53608197 -0.0090421168 0.25440937
0.52138054 -0.054722663 0.25001296
0.52095985 -0.070051439 0.19713713
0.52883941 -0.074410312 0.22362545
0.52143121 -0.068750776 0.22985852
0.51772702 -0.033555206 0.24703698
0.51847613 -0.037841164 0.24736558
0.56573689 -0.048276037 0.25657547
0.56752551 -0.058589559 0.25806326
0.53766406 -0.076391585 0.22373486
0.54991782 0.0055750986 0.24839269
0.53048646 -0.056806769 0.24653253
0.54321241 0.010184337 0.25340015
0.56777215 -0.01606355 0.24434721
0.53459704 -0.014245335 0.25611553
0.53501832 -0.011264601 0.2551181
0.538903 -0.079203919 0.22438574
0.53637373 -0.0056542284 0.25446081
0.55331528 0.012845378 0.251425
0.54112405 -0.041563228 0.2473585
0.53831089 -0.015929867 0.24691397
0.54656106 -0.080330655 0.18737307
0.56386 -0.035409264 0.24561666
0.5436185 -0.0013580135 0.24587645
0.55331308 -0.044476528 0.24621725
0.55087268 -0.042789221 0.24612917
0.56176239 -0.0074434425 0.25483394
0.5349465 -0.030959472 0.24640878
0.54267108 -0.0528441 0.2572425
0.56006444 -0.034931786 0.25573605
0.56387758 -0.060854476 0.25852358
0.52708006 0.0049842624 0.24709925
0.55712384 -0.079336062 0.22145383
0.54936242 -0.01593614 0.25541577
0.56984085 -0.0046097841 0.24378976
0.55512774 -0.078864858 0.21442774
0.57305276 -0.065810293 0.24089132
0.51860684 -0.048736453 0.24735898
0.56454635 -0.034804296 0.2564708
0.53169227 -0.076756164 0.2112588
0.55047077 -0.024660435 0.2486058
0.5537113 -0.021235067 0.2561996
0.55185938 -0.060708269 0.25667354
0.53957343 -0.049579475 0.24828275
0.52463973 -0.068752259 0.24751385
0.53584039 -0.044659499 0.25666273
0.5468573 -0.049726196 0.24645089
0.54160404 0.015296986 0.20917706
0.56409848 -0.079221673 0.18820766
0.52685666 -0.04624784 0.24763277
0.56237561 -0.067271955 0.25981241
0.53720731 -0.078038849 0.19204573
0.53841484 -0.072126143 0.2484719
0.55384552 -0.077118479 0.2251756
0.56312609 -0.076062337 0.20450024
0.53893685 -0.062215112 0.25892869
0.54970872 0.013833268 0.24600737
0.55582911 -0.0021759062 0.25469121
0.54363257 -0.017517777 0.24858119
0.51586944 -0.050699819 0.23410214
0.55102551 -0.012563263 0.24609442
0.55944562 -0.016656157 0.24954599
0.56111872 -0.0069555193 0.24648456
0.54462433 0.0023003106 0.25330651
0.55304682 0.015305412 0.24600078
0.52514976 -0.072396718 0.23056462
0.56805402 -0.023236331 0.24283217
0.55108833 -0.052402314 0.24590483
0.5444935 -0.049378376 0.2579287
0.56874233 -0.070160806 0.24432229
0.5630123 -0.058919601 0.25877279
0.54912657 -0.078838669 0.19289164
0.55630195 -0.055956528 0.24703737
0.54707569 -0.034680799 0.24638705
0.55670708 -0.020344803 0.25568411
0.55205321 -0.032408219 0.25706926
0.56191266 -0.077858075 0.19976471
0.56138331 -0.047089223 0.25614339
0.5662744 -0.028075466 0.24461642
0.55309922 0.0026978266 0.25486556
0.55140376 -0.00036865886 0.25384575
0.56652647 -0.061000116 0.25888065
0.52520102 -0.071233317 0.20312516
0.52735794 -0.045675471 0.24775635
0.52770466 0.0044586635 0.24831308
0.54645324 -0.0069639147 0.2484016
0.53535122 -0.0084068449 0.245759
0.53880244 -0.059328936 0.2497723
0.53598225 -0.076790184 0.22036292
0.51791477 -0.062301982 0.22960234
0.56369716 -0.0040113647 0.24712017
0.53410923 -0.054861143 0.24664874
0.52931035 -0.06329836 0.2476353
0.5310545 -0.060750932 0.2506282
0.52766436 -0.016400473 0.25778055
0.54161292 -0.003416968 0.24546398
0.53896159 -0.017072942 0.25642282
0.52382207 0.0052638995 0.24712269
0.53505999 -0.073371932 0.25936535
0.53635424 -0.0070817224 0.24779426
0.54919374 -0.071455613 0.24910399
0.53833002 -0.07818561 0.20221134
0.5679121 0.0074014966 0.25346142
0.55897427 -0.022652764 0.25644079
0.5358566 -0.077862196 0.19525081
0.56570596 -0.056093674 0.24871799
0.54138255 -0.015153458 0.24670289
0.56871915 -0.070861652 0.25860113
0.54832935 -0.016435489 0.24622115
0.53681803 0.016176736 0.23746668
0.56139743 -0.036152512 0.256084
0.57078969 0.0056827441 0.21878648
0.5560298 -0.076494046 0.2362206
0.5435304 0.001412245 0.25436559
0.5283711 0.0023208598 0.25448781
0.56347996 -0.010280495 0.25489378
0.52228189 -0.038437884 0.249836
0.56229526 0.0081451172 0.2280795
0.516774 -0.054606374 0.23960097
0.53529453 -0.024424523 0.2465252
0.53039807 -0.033501897 0.24990222
0.53946483 0.014216056 0.21206953
0.5248493 -0.062889919 0.24955922
0.55142939 -0.0092552612 0.24613063
0.54441446 -0.070050016 0.24928634
0.53379053 -0.074597418 0.24506523
0.51675141 -0.060920168 0.22256491
0.55411947 -0.077237308 0.22155461
0.52841514 0.0028927962 0.25406367
0.53175235 -0.018575579 0.25773162
0.54369587 -0.010049409 0.25472835
0.53900164 -0.07706669 0.23370989
0.55025893 0.013317263 0.24326743
0.55713058 -0.078791358 0.21842766
0.51842397 -0.016302373 0.24365552
0.54330951 -0.0059252027 0.25452074
0.54108751 -0.067698002 0.25812608
0.53876907 -0.01275646 0.25471473
0.55924559 -0.00076605281 0.25492969
0.54214799 -0.0014193034 0.24608755
0.53246015 0.013707354 0.24817139
0.56396073 -0.075767115 0.20983651
0.54001498 -0.014830051 0.25570351
0.53538936 0.0078342715 0.24722043
0.52645236 -0.02954519 0.24610966
0.54055673 0.012942446 0.24744411
0.54284823 -0.031597022 0.24707706
0.56512761 -0.074231438 0.20375976
0.54243028 -0.015409842 0.25517276
0.57190394 -0.068441533 0.22619461
0.51891255 -0.05172056 0.24701793
0.55162764 -0.041265663 0.24654983
0.55865628 -0.011289918 0.24981278
0.56365901 -0.043945231 0.24691297
0.5266394 0.0018471512 0.24755582
0.56989574 -0.070405893 0.24190727
0.5622068 -0.0017609502 0.25448108
0.54153663 -0.078183174 0.19743587
0.55350429 -0.012304088 0.24953637
0.54650521 0.012188312 0.2120506
0.55683053 -0.017463965 0.25616205
0.55167425 -0.067451514 0.24798542
0.53507382 -0.074567162 0.23469286
0.54699469 -0.076527514 0.25952536
0.53444141 0.012938924 0.24713819
0.54679781 0.0028736284 0.24580069
0.53652853 -0.073859826 0.24811146
0.53190506 0.012249125 0.2460437
0.57366371 -0.064752713 0.23044211
0.56955647 -0.025166377 0.20865481
0.52985895 -0.076444171 0.21556206
0.57037419 -0.050133254 0.25737372
0.56484026 -0.012400134 0.24611035
0.5189383 -0.066472039 0.19220999
0.56643856 -0.026643779 0.20755194
0.56333333 -0.073125429 0.24520035
0.55895227 -0.018444756 0.24489947
0.5680539 -0.0098139904 0.25406349
0.57020694 -0.070905067 0.25805095
0.55575001 0.012633138 0.2222908
0.53443718 -0.062420152 0.25825605
0.54450345 -0.07604748 0.23900609
0.51548785 -0.056010813 0.2223752
0.53128582 -0.073239326 0.24701607
0.56659323 -0.0038906683 0.24670441
0.54000908 -0.060088217 0.25828457
0.55248177 -0.076087743 0.23986275
0.53143132 0.0040145847 0.24649282
0.55191159 0.01453481 0.21213342
0.5701896 -0.071621791 0.24035691
0.52527845 -0.017221756 0.24965873
0.53494537 -0.037494052 0.24623755
0.56021249 -0.029511668 0.24991626
0.56803459 -0.070069857 0.25830513
0.54110116 -0.051916793 0.24658561
0.53829575 -0.070029132 0.2496106
0.5459497 -0.0058796741 0.24604963
0.52645445 -0.057162236 0.24811764
0.53056955 -0.073963962 0.24579982
0.56568497 -0.028000398 0.20719026
0.54340851 -0.056768507 0.24947484
0.54803592 -0.037326541 0.25827378
0.56369817 -0.026725952 0.2549181
0.53195965 -0.069461875 0.24824871
0.54067791 -0.033002317 0.24713343
0.53945202 -0.01182957 0.24604163
0.5143832 -0.026601521 0.2336901
0.53186697 -0.076129645 0.22635801
0.54028809 -0.020493038 0.25705019
0.56100595 0.012719813 0.2459693
0.5335995 -0.038584139 0.24606414
0.53078008 -0.011256504 0.24654514
0.54928547 -0.077221148 0.23422068
0.56943321 -0.010661413 0.24385411
0.5698781 -0.070252925 0.24089156
0.54659516 -0.059746865 0.2503376
0.56904531 -0.072077729 0.2189215
0.51658136 -0.054766763 0.22964892
0.52569079 -0.072455138 0.21364041
0.53112841 -0.076359645 0.2373527
0.55035847 -0.073344044 0.24664582
0.53816593 -0.032374904 0.25731742
0.5632416 -0.0044062301 0.25467113
0.52360445 -0.016463764 0.24583502
0.57174611 -0.051070277 0.25750461
0.55643016 -0.063253075 0.25122651
0.52050114 -0.059054516 0.24841437
0.52701187 0.0026471331 0.25478649
0.53710735 -0.02729827 0.2566947
0.55592269 -0.036194202 0.25696388
0.56138062 -0.078459248 0.19856304
0.53406304 -0.0078040971 0.24617667
0.53888297 -0.054447003 0.25728652
0.52895504 -0.054741751 0.25750977
0.56656003 -0.075289011 0.24070407
0.54356295 -0.055398755 0.2471067
0.55073464 -0.00020803876 0.2539928
0.52738094 -0.05020785 0.24721846
0.54051286 -0.0086421752 0.24593101
0.55050087 -0.077123426 0.23478255
0.55551726 -0.0018151747 0.25455636
0.5484308 -0.058672227 0.24732079
0.54372317 -0.0014378801 0.24795024
0.5449416 0.015147519 0.23631431
0.52789414 -0.011566876 0.25553963
0.56888652 0.0010667625 0.25501215
0.56436265 -0.063623719 0.24626082
0.56585014 -0.037374597 0.24567749
0.54318607 -0.076127023 0.2274085
0.52510548 -0.072680101 0.21449164
0.52971345 -0.033338688 0.24639378
0.52051866 -0.067747295 0.20192681
0.52053106 -0.038338944 0.24916245
0.55652618 -0.061175317 0.25775909
0.52272731 -0.073109962 0.19491781
0.56673205 0.010652793 0.25032103
0.55711025 0.012588233 0.25141379
0.55824256 -0.019612912 0.24981435
0.56354696 -0.033967488 0.25626573
0.57371771 0.0065111769 0.21061392
0.5551216 -0.0088140471 0.25453883
0.55410016 -0.050595507 0.25633082
0.57139164 -0.050985184 0.25758252
0.52830207 -0.076275393 0.21378635
0.56636721 -0.077470571 0.19276029
0.54678863 -0.030001108 0.24701899
0.55549687 -0.045776848 0.24648319
0.55514765 -0.018039506 0.24564557
0.53411114 -0.077326879 0.20705295
0.55013108 -0.05037003 0.24570423
0.53338873 -0.033339441 0.25729358
0.55541223 -0.03970309 0.25708392
0.5391463 0.0085957581 0.25225466
0.55841559 -0.028562073 0.24568824
0.57328117 -0.059971184 0.25679848
0.53342462 -0.063141987 0.25026092
0.55128366 -0.078748807 0.1901736
0.54151338 -0.031334504 0.24738151
0.56354094 -0.0729151 0.24626917
0.56637239 -0.072778195 0.22124186
0.54095101 -0.07947322 0.19034773
0.54122221 -0.027188439 0.24820966
0.56631929 -0.069157124 0.25961351
0.56890768 -0.03450432 0.25584197
0.57165927 0.0040196995 0.24441601
0.52000695 0.0043513854 0.24623835
0.56786972 -0.059631191 0.24819385
0.56766409 -0.074721053 0.23965791
0.55077517 -0.013587028 0.24889468
0.56821918 0.007020642 0.22656599
0.53529274 -0.067929946 0.24954879
0.57018578 -0.05697469 0.2476963
0.53792232 -0.01462347 0.25637382
0.56507355 -0.074946128 0.22067885
0.53185838 0.010664351 0.24976531
0.55948484 -0.0059927362 0.2460119
0.560251 0.012767692 0.25134742
0.52534509 -0.071895897 0.23948811
0.54402363 -0.077085592 0.21865605
0.5476926 -0.062455207 0.24824187
0.56367999 -0.075465642 0.22607903
0.54802036 0.0091275694 0.25356224
0.55057102 -0.0097788377 0.24608091
0.53714985 0.0014768513 0.25294775
0.56801885 -0.072094314 0.20084147
0.57171458 -0.068095013 0.22956568
0.56002623 -0.033316009 0.250128
0.54297453 -0.044371024 0.25753504
0.54200953 -0.051098652 0.24673185
0.53422421 -0.041495029 0.25761825
0.54588002 -0.072867028 0.25864419
0.54266429 -0.051227417 0.24658252
0.52657968 -0.010715026 0.24899778
0.55711979 -0.034186084 0.24604486
0.53980213 -0.070617244 0.25812924
0.57126486 0.0048119635 0.2527065
0.54781073 -0.080163702 0.19152538
0.56740624 0.01238735 0.20632209
0.57012707 0.0064174924 0.24550878
0.53930587 0.0081717651 0.24779269
0.55312067 -0.045641791 0.24690732
0.56566453 0.010550773 0.21603654
0.54489499 -0.079324715 0.20063372
0.52331591 -0.042541135 0.25038686
0.54669893 -0.078800306 0.22543995
0.52139741 -0.029489582 0.24842519
0.56905812 -0.024093496 0.21233238
0.56713343 -0.054222755 0.24808256
0.55942172 -0.00047712633 0.24690478
0.55916673 0.01163011 0.25258029
0.55492616 -0.077561565 0.23271053
0.54212773 -0.027153624 0.24769388
0.56982869 -0.0049112332 0.24475753
0.53994781 -0.015701197 0.25634956
0.56045371 -0.053976089 0.25625473
0.56951487 -0.070868172 0.19996656
0.57234162 -0.068066202 0.22518562
0.56527698 -0.029482184 0.24534832
0.56868273 0.00047971067 0.24577767
0.53419757 -0.064216584 0.2486814
0.54458922 -0.01707615 0.2465862
0.54086637 -0.07589034 0.24563193
0.55084437 -0.044657692 0.2465439
0.56236494 -0.077945136 0.21575341
0.5420199 -0.057402443 0.2581642
0.52653772 -0.0090475408 0.25556481
0.55045056 -0.072988957 0.24836133
0.57268029 -0.023501955 0.21304132
0.55657238 -0.077187851 0.22749525
0.5583849 0.0014282641 0.24667177
0.54907924 -0.022581862 0.24606866
0.54616791 -0.020075507 0.2481883
0.53395182 -0.072782293 0.25937861
0.54242706 -0.076909654 0.23536868
0.52788061 -0.049637306 0.24734163
0.5262357 -0.062035594 0.24856988
0.53686887 -0.013405166 0.24589199
0.55735707 -0.030287979 0.24631663
0.530514 -0.06750989 0.24901801
0.52654713 -0.02305638 0.24517711
0.51815373 -0.051190119 0.24700232
0.52449566 -0.071977809 0.21708073
0.54925299 -0.05285573 0.25725612
0.54212624 -0.061199218 0.24849583
0.53620505 -0.036725711 0.2463105
0.52990746 -0.01968601 0.2501913
0.55541247 0.0095883356 0.24574466
0.56736326 -0.072802767 0.24360393
0.54480284 -0.066674061 0.25055563
0.54418516 0.009666767 0.25338852
0.54568261 -0.055155367 0.24685737
0.53326935 -0.079162329 0.231729
0.56005299 -0.077747457 0.22906251
0.5254755 -0.012592079 0.25592574
0.54578394 -0.028232057 0.24707396
0.53352958 -0.0097956499 0.24555501
0.56872177 -0.048673984 0.2465802
0.56568772 0.010953326 0.1912705
0.56286371 -0.06327676 0.25935507
0.52904618 -0.039237957 0.24762602
0.57223129 -0.045521207 0.2460696
0.54997271 -0.034464788 0.25805712
0.54413199 -0.03729973 0.25720352
0.54019004 -0.042469259 0.25726941
0.55384195 0.00098002935 0.24986926
0.57071495 -0.020576933 0.24013551
0.55596823 -0.035602849 0.25652534
0.5359301 -0.038220055 0.25719774
0.57023519 -0.070422105 0.2214656
0.51240772 -0.029541066 0.22753327
0.57179397 -0.069932856 0.22031952
0.52707601 -0.025799705 0.24519342
0.55687129 -0.074136108 0.26040626
0.53231919 0.0066100578 0.24619973
0.56323564 -0.015103707 0.25584504
0.51802784 -0.060762178 0.24030295
0.56037986 -0.07415767 0.24530199
0.55162579 -0.078241713 0.23558538
0.56170356 -0.053934671 0.24797173
0.53797054 -0.045792911 0.25663722
0.53069144 -0.011587412 0.24644186
0.51560968 -0.025230452 0.21052589
0.51709074 -0.027627088 0.24524072
0.52669889 -0.012295822 0.24575011
0.52915794 -0.0034432334 0.24807991
0.53208655 0.0091622723 0.25074491
0.53470653 0.008901055 0.24760649
0.54630226 -0.01988834 0.25684702
0.52686095 -0.0059440862 0.25580633
0.54446411 -0.038428165 0.24654466
0.53930068 0.013509232 0.24483465
0.53873384 -0.075191557 0.23341897
0.53693193 0.011981867 0.19146569
0.52648538 -0.022322867 0.24971622
0.53482056 0.0059977998 0.24723138
0.56929839 0.0046687555 0.23554546
0.54226601 0.012563438 0.21472719
0.52590311 -0.047150131 0.25007579
0.52152634 0.0020965869 0.24681638
0.53020358 0.0014988345 0.24686797
0.55534244 -0.074403755 0.26119381
0.54761428 -0.071824931 0.25851339
0.56206584 -0.066258281 0.24676313
0.54311126 0.015560847 0.20840068
0.56428796 -0.057812393 0.25877473
0.55280995 -0.075941175 0.24008256
0.53487021 -0.036463194 0.24661495
0.52074707 -0.066612639 0.2417886
0.55112278 -0.020248484 0.24657241
0.53904212 -0.0015775301 0.2454505
0.559304 -0.069429472 0.24714878
0.55198008 0.017269203 0.24579324
0.55041116 -0.08072076 0.1855524
0.5350613 -0.015071904 0.24884066
0.56862438 -0.071168892 0.20214644
0.56451529 0.0019970979 0.25476941
0.56369978 -0.021591581 0.2551282
0.56023616 0.00091736886 0.25372097
0.57171196 0.0057529449 0.21580048
0.53515774 -0.046681214 0.24808504
0.55428517 0.006322904 0.24583812
0.54943156 -0.029807499 0.24770123
0.52715522 0.014984855 0.24790728
0.57238853 -0.046212375 0.24579963
0.56631917 0.0065525388 0.23536867
0.53205097 -0.077340901 0.21474476
0.52090919 -0.06824138 0.23971052
0.55828321 -0.016241224 0.24929674
0.56995094 -0.05373048 0.25752261
0.52415717 -0.071699493 0.20242602
0.53212547 -0.068842821 0.24844195
0.54637235 0.014465202 0.20790663
0.53104919 -0.042119343 0.25801447
0.56748867 -0.073331751 0.24232377
0.53091395 -0.076567762 0.2362401
0.56218189 -0.060091428 0.24678577
0.5168941 -0.033306915 0.18692254
0.57006514 -0.07150466 0.23719989
0.56383318 -0.048288576 0.25603998
0.56100851 -0.010039949 0.2454084
0.53173304 -0.05472609 0.24707286
0.5499388 -0.033278469 0.2471683
0.53613359 0.001720801 0.25317106
0.51513904 -0.045881029 0.2401963
0.55249232 -0.08000984 0.22516654
0.54988831 -0.07384301 0.24814755
0.57165498 -0.016387889 0.25218269
0.54350048 -0.027652929 0.25702611
0.53971088 0.012627255 0.1899212
0.5649935 -0.075830355 0.23968746
0.55984074 -0.05585368 0.25654206
0.54129177 0.012904005 0.1891069
0.55961913 -0.020318989 0.2558164
0.54525191 -0.028073357 0.25664121
0.56174761 -0.071463458 0.2475671
0.54865319 -0.054119777 0.25710183
0.54037392 0.013676479 0.24687237
0.52553129 -0.05267955 0.24770769
0.54205203 -0.0739595 0.24650344
0.5587604 -0.013582944 0.25522289
0.56667292 0.0056991419 0.245801
0.5646764 0.0030039446 0.24730702
0.56240773 -0.05722829 0.25780553
0.55013984 0.0080556711 0.24989091
0.53727043 -0.027726695 0.24870308
0.54786891 -0.025727266 0.25652578
0.53381485 -0.077651687 0.23325098
0.51733643 -0.042163968 0.24199581
0.54444474 -0.078778133 0.19898608
0.56838608 -0.013498873 0.24408661
0.52019703 -0.049842913 0.24861723
0.56194544 -0.021212224 0.25045112
0.54710227 0.01428998 0.20774622
0.52681774 -0.073613323 0.20611805
0.5707559 0.0054609762 0.22410919
0.56979859 -0.025855526 0.2051539
0.52602899 -0.075028956 0.19398364
0.55343908 -0.0056887516 0.25426024
0.52501601 -0.070959531 0.21298413
0.53763109 -0.05139247 0.24624819
0.53697091 0.015110719 0.24202926
0.53377903 0.014896488 0.24085239
0.52153689 -0.062512539 0.24810898
0.51924771 -0.063539818 0.2074493
0.52700186 -0.041174829 0.25025192
0.5514189 0.013972591 0.23719646
0.52926344 0.0075657838 0.24702244
0.54628605 -0.02428606 0.24829672
0.53676164 -0.076607876 0.20856491
0.55307406 0.01357782 0.24842222
0.55546868 -0.031689148 0.24915071
0.55537361 -0.042315345 0.24920247
0.52854741 -0.043567702 0.24953996
0.56766307 -0.041722775 0.25631231
0.54938722 -0.02996677 0.25637335
0.52949941 -0.029825561 0.25760031
0.55326331 0.016032798 0.21182765
0.53176206 -0.073984645 0.2466764
0.54055834 -0.031593289 0.25711492
0.57037109 0.0046224468 0.24483369
0.55246139 -0.052857213 0.24659887
0.53085673 -0.029039446 0.24559161
0.55799443 -0.052412972 0.25068557
0.55253971 -0.046524312 0.2466864
0.55101573 -0.026862986 0.24638961
0.5630275 0.012393162 0.2170435
0.57139182 0.0064589269 0.25148511
0.55213881 0.010595445 0.25348529
0.55367827 -0.068115897 0.25865784
0.55189157 -0.029311206 0.24645562
0.54316306 -0.074819647 0.25851873
0.54241848 0.013335487 0.24889234
0.5466274 -0.064988174 0.25104874
0.52678579 -0.073585428 0.22079189
0.56649041 -0.014304357 0.25529313
0.56748664 -0.071361318 0.24516819
0.56400466 -0.017164696 0.25572318
0.54012769 -0.076287143 0.22951698
0.56251663 -0.0094739357 0.2546961
0.53705323 -0.00083483726 0.24602875
0.53724378 -0.027662072 0.24721415
0.54461789 -0.043994818 0.2579135
0.56702876 -0.040667068 0.25580889
